-68.03800201 -54.18999863 7.28800011
-48.93833160 52.81833267 6.59333324
-40.29000092 35.86000061 10.56000042
-61.65000153 -20.79333305 7.73333311
-56.55749893 -41.59500122 11.53999996
-95.94799805 -37.67800140 7.25000000
-46.95000076 27.70999908 9.28199959
-62.95666504 28.78666687 6.61000013
12.27999973 53.38000107 15.14999962
-86.81999969 42.86000061 9.26000023
-109.53166962 37.41666794 12.96500015
-27.43714333 -0.60428572 14.00571442
-27.83666611 38.36999893 10.74666691
-63.13166809 -74.19666290 7.04500008
-18.63857079 11.41571426 8.33285713
-75.23000336 -48.20999908 7.32999992
-61.45999908 -74.15000153 7.07000017
-40.00000000 52.70999908 7.99499989
-87.01999664 -55.18999863 7.15999985
-111.94000244 -41.09500122 6.90500021
-82.76999664 -50.11000061 7.36000013
-31.95333290 -24.49333382 8.39000034
1.05333328 -47.29999924 8.64000034
-58.02999878 -74.11000061 7.11000013
15.17749977 1.39750004 16.64749908
-75.53399658 20.93000031 9.40999985
-83.44499969 -4.98750019 10.74750042
-56.03250122 -74.10749817 7.13250017
-55.44499969 -74.19249725 7.15000010
-94.44499969 50.80250168 13.83250046
-83.29000092 -7.13000011 10.76000023
-87.42500305 -8.79500008 10.44999981
-53.52600098 -74.20400238 7.17399979
-38.40999985 -23.11333275 8.35999966
-52.44666672 -74.58666992 7.19333315
11.22999954 -43.61000061 8.86999989
-0.94000000 6.92000008 8.77000046
-29.93571472 -49.69285583 8.39999962
-9.52499962 -44.89250183 8.40999985
-50.03250122 -74.11250305 7.23999977
4.59499979 -62.09999847 12.64999962
-90.62000275 9.01000023 6.61000013
-51.43799973 26.80999947 7.52799988
-34.12666702 28.39666748 7.04333353
-16.44000053 12.60799980 8.37399960
-22.93250084 -8.10249996 18.20249939
16.08142853 -11.60571384 16.22142792
-73.45500183 9.89249992 6.97749996
-45.54399872 -74.29000092 7.34399986
-72.54499817 -38.60749817 7.53249979
11.04666710 27.30333328 9.98999977
-38.41500092 18.41250038 8.31999969
17.54999924 16.19166756 15.63666630
3.05599999 -61.80400085 12.60799980
-42.55250168 -74.27999878 7.42000008
-94.04000092 -56.19333267 7.07666683
10.55749989 35.30500031 10.99499989
-58.47000122 15.94499969 8.93999958
-34.96666718 -4.09000015 10.63333321
-8.33500004 5.86000013 10.44999981
-109.44000244 15.22000027 5.96000004
-21.93799973 -44.08800125 8.23400021
-45.93500137 9.90499973 13.31000042
-2.45499992 47.31999969 9.43500042
16.45499992 -64.68833160 13.14000034
-10.36999989 8.09500027 12.07499981
-103.41500092 -31.19499969 9.41874981
-111.03399658 3.99600005 6.17399979
-22.13500023 25.00000000 7.99749994
-60.95000076 32.91333389 8.11333370
-86.44750214 51.00249863 14.36250019
-34.02999878 -74.20999908 7.65000010
-101.13400269 -12.09000015 6.62200022
2.05874991 -2.09375000 9.40499973
-71.95999908 29.43000031 7.74749994
-31.94666672 -74.11166382 8.80666637
-41.52399826 -41.10400009 11.61999989
-53.41999817 16.49799919 8.31000042
-66.92600250 28.38999939 7.10599995
-62.03666687 -36.29333496 7.71333313
-19.14666748 -39.68000031 8.33666706
-105.44666290 8.30000019 6.18666649
-89.01999664 -30.80333328 7.21666670
-69.61750031 0.40750000 7.17749977
-60.03749847 1.39499998 7.43750000
-101.94249725 7.01749992 6.30999994
-13.03999996 -28.79800034 8.60000038
-64.02999878 -10.97000027 7.61999989
-26.64999962 -45.79999924 8.11999989
-25.34333420 -74.11666870 8.63000011
-46.72600174 -31.09600067 8.13199997
-85.04000092 53.40999985 14.23999977
-113.83999634 -33.65000153 12.09000015
-102.90000153 37.88000107 11.44999981
-8.38000011 47.34000015 9.27000046
-22.40333366 -74.11666870 8.14999962
-23.65333366 -27.09333420 8.44666672
-110.52999878 -34.60599899 8.54800034
-5.63800001 -33.70800018 8.67000008
-86.94999695 -33.00000000 8.06999969
16.38500023 -6.09250021 17.00749969
-10.94666672 20.58666611 8.48999977
2.97250009 21.30249977 8.78250027
-99.92500305 24.30500031 6.93333340
-79.45166779 41.59333420 9.51000023
-65.94000244 -35.69749832 7.67999983
-69.04499817 -22.11750031 7.59999990
-22.43750000 -24.60750008 8.52000046
-20.91500092 -7.09499979 16.98500061
-60.93249893 43.48249817 7.61000013
-45.43399811 53.88800049 6.72599983
-114.83000183 26.87999916 11.56000042
-53.97000122 -50.61000061 10.35000038
-92.94000244 -19.29999924 6.94000006
-30.94000053 -29.29999924 8.31000042
-16.12999916 -24.88999939 8.59000015
-20.94666672 -44.60333252 8.22666645
-28.53000069 -63.58499908 7.95499992
-56.03166580 -34.09833145 8.23999977
-53.93000031 18.20333290 8.53999996
18.55333328 49.41333389 15.08333302
-50.40999985 -13.98999977 10.73999977
-2.94499993 23.89749908 8.69250011
-86.96499634 4.44500017 7.93499994
-7.44250011 -74.19750214 8.21000004
-53.13800049 -11.20600033 12.97000027
-117.24800110 -9.80399990 6.14799976
-32.12333298 40.38666534 13.02000046
-40.43399811 13.30599976 8.02999973
-110.44000244 34.91999817 13.00333309
-108.89499664 -11.59000015 7.25000000
-83.76000214 13.92500019 6.66499996
-3.63199997 -74.51200104 8.31799984
-22.32749939 -32.60749817 8.39999962
-2.83500004 -74.60250092 8.33500004
-32.47000122 -20.62000084 9.12333298
-101.34166718 36.89333344 10.21166706
-77.52600098 -43.68999863 7.40600014
-10.55500031 -28.29999924 8.64000034
0.97250003 -6.28999996 9.12250042
-45.53749847 -8.59749985 10.22000027
-64.54799652 -28.50200081 8.15999985
17.95999908 -22.59333420 11.31333351
-39.44499969 -51.61999893 7.76000023
-41.37500000 -46.50500107 10.66499996
-50.91199875 -7.19399977 11.03999996
-107.82599640 15.40600014 6.00199986
-102.53500366 49.90999985 13.30000019
6.55666685 30.00333405 9.90166664
-85.87999725 4.92000008 7.76000023
-110.48999786 -45.41999817 6.86000013
-68.98999786 1.50999999 7.15999985
-44.53749847 -25.09000015 8.07250023
-89.33142853 44.89428711 11.43571472
13.66333294 -28.09333420 12.67333317
-113.62999725 -19.14999962 7.17999983
-78.45500183 -10.68500042 8.84500027
-92.08999634 36.36000061 6.65000010
-25.44249916 15.40750027 7.98999977
-46.90499878 12.92000008 7.79500008
-8.44166660 -26.09833336 8.69333363
5.36333323 -44.10666656 8.74333286
-84.16000366 -33.61000061 7.46000004
-88.62599945 -26.09199905 7.13199997
-81.94400024 -50.90800095 7.48999977
-58.93428421 39.50285721 6.81571436
-91.72499847 -64.99250031 7.00500011
-73.03375244 -11.10499954 10.57499981
-83.44200134 -59.89799881 7.05999994
10.55000019 -45.10499954 8.84000015
-84.54000092 -63.78799820 7.01599979
-100.04000092 46.88499832 13.49333286
16.47999954 -74.30333710 8.78333378
-98.52999878 -52.19599915 7.03200006
17.36249924 -74.30249786 8.80000019
-51.90000153 9.35000038 9.56000042
13.56428528 -49.10142899 9.61999989
-69.97000122 16.38999939 8.44999981
-4.84999990 42.84999847 9.15999985
19.96500015 -74.51499939 8.82750034
-54.42750168 16.29999924 8.82750034
-54.94499969 -10.10666656 12.02999973
-118.53500366 -73.62500000 11.05500031
-119.14499664 13.31499958 5.80000019
-43.12749863 -36.87749863 11.51500034
-105.44200134 -48.89599991 6.92000008
-61.02999878 -39.59749985 8.50625038
-80.52999878 12.51249981 6.80999994
-96.02333069 49.22000122 13.75333309
-47.45000076 41.30500031 8.43500042
-114.53500366 -73.66999817 14.43000031
-32.63249969 -21.79249954 8.48499966
-17.84749985 -14.62250042 14.84000015
8.96000004 26.80200005 9.82400036
-84.86000061 46.34999847 11.27000046
-5.03749990 -53.67250061 8.43000031
-44.42800140 15.90200043 7.93599987
-87.71666718 -8.06333351 10.34000015
-103.41000366 -15.06000042 6.96000004
-65.02749634 -7.21500015 7.42500019
-48.04999924 -46.61166763 10.93999958
12.30000019 50.38999939 13.97000027
-71.52249908 -19.67250061 8.66749954
-106.13500214 -74.00000000 6.90749979
-108.56999969 41.09999847 12.96000004
-74.44000244 -33.79999924 7.61857128
-56.74000168 -39.98799896 11.42399979
-17.51199913 50.81800079 9.07999992
2.88666677 32.31000137 9.25666714
-88.54250336 -63.90000153 7.01749992
-42.34999847 0.92750001 7.84000015
-101.94249725 -74.09999847 8.14500046
-65.90666962 40.92333221 11.63000011
18.56800079 -65.27999878 12.54199982
-75.43750000 25.40999985 8.47500038
4.56250000 -59.59249878 12.43999958
-99.44166565 -73.77833557 8.66333294
-99.01999664 -73.68000031 8.68666649
-40.04499817 -58.91249847 7.67500019
-115.56333160 -27.70000076 13.05666637
-97.72000122 -73.75000000 6.98000002
-16.84250069 42.90000153 9.40250015
-25.43000031 -42.65000153 9.07999992
-99.03250122 -57.68000031 7.01749992
-95.44166565 -73.69666290 6.94833326
-72.93666840 22.80222130 8.88333321
-56.96500015 -28.05500031 7.84999990
-33.46500015 52.41999817 8.76000023
-79.33000183 53.40000153 14.59000015
-95.43000031 -36.99499893 7.28000021
13.25500011 -12.63500023 15.64999962
-32.44749832 -30.48999977 8.29249954
-99.94249725 -10.51249981 6.63999987
-6.62500000 40.90750122 9.21749973
-104.38999939 35.38999939 11.85000038
-69.03500366 38.54499817 12.77000046
-91.51000214 -29.31999969 7.90000010
4.97714281 -21.68285751 8.98999977
-40.93750000 -4.99249983 7.98000002
-113.94999695 38.40750122 12.77499962
-87.93000031 -73.69000244 6.94500017
-106.05000305 -42.09000015 7.00000000
-86.75399780 -73.78600311 6.94000006
-6.41333342 1.40833330 10.04166698
-32.94200134 12.10400009 7.84800005
-38.92285538 24.41714287 7.31285715
-119.94599915 28.90200043 12.90999985
-34.74399948 14.21399975 7.79600000
-93.93250275 -17.69750023 7.00750017
-58.02600098 9.32199955 9.42800045
-110.02799988 -0.69800001 6.23600006
-57.41799927 -42.59999847 11.33199978
-52.94200134 46.40200043 6.63600016
-3.42499995 -20.70249939 8.88000011
-2.44000006 30.31333351 8.84333324
-67.22333527 -65.18666840 7.13333321
-70.95500183 -59.70000076 7.15999985
-79.03250122 -73.69499969 6.88000011
-34.03499985 46.91125107 10.00125027
-63.41333389 -19.71333313 8.05333328
-11.02200031 20.89599991 8.48400021
-25.44833374 29.91833305 7.16833353
-70.77999878 -37.68000031 7.57000017
-85.91500092 -28.31999969 7.26999998
-56.44666672 35.79999924 6.45666647
-106.91500092 21.87500000 6.94999981
-75.63428497 50.39142990 13.41142845
-95.63333130 20.89166641 6.13666677
-64.42500305 -29.60499954 8.80000019
16.09000015 -53.09999847 10.93000031
-75.73666382 43.72333145 10.97000027
-67.94499969 24.68499947 8.63000011
-5.62750006 -26.40749931 8.73750019
-8.64000034 -57.70000076 8.29666710
-70.44166565 -73.98666382 6.90333319
-91.05500031 25.58499908 6.10500002
13.54599953 10.91800022 13.73999977
-68.94499969 -73.69000244 6.93249989
-18.43799973 -14.89000034 15.62600040
-108.73999786 -26.59000015 11.11999989
-22.52750015 7.43249989 8.52250004
-87.63400269 -39.48600006 7.36800003
-66.53399658 -73.89600372 6.97399998
-77.92833710 -4.18166685 8.68833351
-32.92800140 25.40399933 7.11399984
-17.45999908 -40.16999817 8.35999966
-32.43833160 42.40499878 13.00166702
-103.45999908 -22.08499908 7.48999977
10.05666637 54.93333435 15.43333340
-94.43199921 33.32400131 6.09000015
-36.52500153 3.40499997 7.81250000
-61.94599915 -73.79199982 7.05999994
-2.03600001 -58.09999847 8.49600029
-29.94199944 24.98600006 7.47800016
-117.94750214 8.50000000 5.80749989
-60.03749847 -73.78250122 7.07999992
-61.53749847 -29.07999992 7.80000019
-104.62500000 -10.09000015 6.48999977
-56.54800034 -41.10200119 11.33800030
-65.34999847 -46.62500000 7.57499981
-57.52999878 -73.61333466 7.13000011
-65.43833160 54.39166641 12.53333378
-56.74000168 -73.69333649 7.13000011
-68.44000244 -60.19599915 7.18800020
-55.54249954 -73.69750214 7.15000010
-88.00000000 -10.57499981 10.67000008
-20.61599922 30.39800072 7.39200020
-99.44000244 -61.13000107 8.61499977
-55.54600143 0.41600001 8.05599976
-29.13333321 35.83333206 9.47999954
-52.44400024 -73.69200134 7.19999981
-98.44200134 -50.89599991 7.03999996
13.02000046 31.14999962 11.06000042
-22.55200005 -61.58599854 11.32600021
-50.53333282 -20.10666656 8.93000031
-97.44200134 -27.08600044 6.98400021
-112.52999878 -49.50249863 6.80249977
2.95749998 23.88500023 8.91499996
-95.52749634 -38.61249924 7.24749994
-11.85999966 -18.14999962 10.07999992
-47.54000092 -73.60600281 7.29600000
-118.95600128 -12.58399963 6.09000015
16.16600037 -41.10599899 9.07999992
5.01999998 -0.00500000 10.55500031
18.04999924 49.50799942 14.84000015
-71.73000336 -16.08250046 10.93999958
-91.44999695 2.43333340 6.84333324
-32.00799942 53.41999817 8.80399990
-80.52749634 -21.49749947 7.23999977
-42.94800186 -73.70800018 7.41800022
-10.41199970 -14.61800003 11.42399979
-118.44499969 -14.03999996 7.61000013
-21.53000069 -15.64999962 15.47000027
13.96749973 -25.07999992 12.63500023
-43.47999954 20.29000092 7.96000004
-21.31999969 -57.10499954 10.73750019
12.95400047 -13.62399960 14.73400021
-109.92400360 -12.59599972 8.36400032
-79.03333282 -18.10666656 7.43666649
-74.63500214 -31.08749962 8.43999958
-37.73249817 -74.00000000 7.55499983
-119.94400024 35.90800095 12.69600010
-115.57499695 -36.13000107 9.97999954
-77.03399658 9.50000000 6.92600012
-103.33999634 -18.05999947 6.86999989
-102.93666840 -36.11000061 7.14166689
5.54666662 -2.48000002 11.75666714
-96.01667023 -13.10000038 6.71999979
-33.68000031 -73.63999939 13.17000008
-66.94249725 -24.89249992 7.63000011
-32.73714447 -73.60571289 13.11428547
-25.04000092 -24.69000053 8.48999977
-8.83333302 39.42166519 10.21666622
-107.43856812 24.89428520 9.21428585
-68.94249725 -54.18999863 7.27250004
3.97399998 -58.08200073 12.31999969
18.54333305 -49.39666748 8.96000004
-60.02999878 -40.57799911 9.69200039
-28.85000038 -73.62999725 9.06000042
-25.03666687 53.41999817 8.82999992
-27.93166733 -73.68833160 9.00000000
-41.81800079 29.41399956 7.03399992
4.87500000 -47.09500122 8.71249962
-57.51666641 -28.09000015 7.84333324
-24.42428589 44.81571579 11.78999996
1.05750000 -51.49499893 8.60750008
-21.93428612 2.42000008 9.48428535
-74.44000244 -43.19250107 7.42500019
-96.53250122 -12.19750023 6.69000006
-104.37000275 41.83000183 13.27999973
-74.02999878 -63.18999863 7.04666662
-22.32749939 -73.61000061 8.23999977
-66.15000153 -31.73999977 7.76999998
-21.42799950 -73.69999695 8.13000011
-76.52999878 -54.84999847 7.17000008
-105.83000183 -59.49250031 7.52500010
16.56857109 -31.08857155 12.62857151
-6.02750015 -36.20500183 8.64000034
-24.44857216 -63.01142883 7.94999981
-80.14399719 -58.70600128 7.07999992
-102.34750366 29.90500069 9.42000008
-17.12000084 -74.09999847 7.99599981
1.05999994 -56.07749939 9.31750011
19.37000084 -45.90750122 8.99499989
-15.44666672 -73.68000031 8.02333355
-13.14200020 -42.68799973 8.38000011
12.00333309 6.40000010 14.47999954
-95.52600098 -32.09600067 7.11999989
-61.43999863 -7.70333338 7.71000004
-70.48999786 22.28000069 9.15999985
3.53999996 41.49499893 9.75500011
-88.95749664 12.41499996 6.53499985
-38.93999863 -61.27999878 7.65999985
-19.93000031 44.41285706 9.30857182
-45.95000076 36.88999939 8.76000023
-60.40000153 36.36999893 7.84999990
-70.35250092 -6.59749985 7.25250006
15.55333328 -34.07333374 12.64000034
19.15800095 -14.68200016 13.17599964
-36.43999863 -32.04999924 10.03999996
-86.72499847 -44.52000046 7.36999989
-52.40999985 -8.21000004 12.14000034
-112.83999634 -20.19833374 6.66166687
-91.34999847 11.89799976 6.49399996
-11.50000000 -15.18000031 13.61999989
-19.35000038 4.89499998 8.73999977
-95.92250061 33.11500168 6.27750015
9.03999996 7.41666651 11.55333328
-3.44000006 -73.78500366 8.30249977
-44.44400024 36.77600098 9.59399986
-26.53249931 -23.19249916 8.68000031
-95.52500153 14.91250038 6.23000002
-118.44999695 -27.11499977 14.22000027
-36.06000137 -44.61000061 10.14500046
-98.05249786 -46.19749832 7.15000010
15.46199989 54.81000137 14.60999966
12.52999973 0.42500001 16.44499969
10.06999969 -57.06666565 11.94999981
-53.46500015 14.35999966 8.64999962
-36.02399826 54.82400131 8.47599983
-103.41833496 -23.99333382 8.21500015
-9.52000046 -46.31999969 8.39666653
-15.56000042 -29.20000076 8.55000019
-114.45999908 -17.14999962 7.96999979
-56.47000122 -19.19499969 7.84499979
-63.53499985 -44.59249878 7.67500019
18.47500038 -4.10249996 16.84000015
-30.61000061 -51.84000015 12.63000011
-51.84000015 51.80333328 6.58333349
0.97500002 -29.69499969 8.81999969
-86.94000244 -24.19799995 7.12599993
-62.90000153 35.29000092 9.44999981
-60.33499908 -61.79999924 7.28000021
-44.93857193 -52.60571289 8.31428528
9.35499954 -73.98666382 8.60833359
-78.44999695 24.43000031 7.63999987
10.46749973 -74.10250092 8.64000034
-62.04000092 23.89500046 7.99499989
-45.42800140 -0.70999998 9.34399986
-21.93750000 43.31499863 10.92500019
-97.93000031 42.86500168 12.84000015
-109.80500031 -14.12500000 8.14999962
-42.43833160 -5.00166655 8.01166630
-77.44000244 24.01499939 8.74250031
-76.44000244 -27.09749985 7.44500017
2.47250009 3.99250007 8.96000004
-87.75499725 -50.60499954 7.26999998
4.55000019 47.88999939 12.56000042
-107.94249725 -48.99750137 6.87249994
-119.54333496 50.91999817 12.38333321
-46.03714371 45.40142822 7.40714264
-32.44250107 -0.50250000 11.82999992
6.04833317 -37.30500031 9.17166710
13.05000019 -50.59333420 10.13333321
-10.52666664 43.90333176 9.22666645
-84.44249725 52.23500061 14.50000000
-119.48999786 -73.15000153 10.90999985
-61.94800186 18.51000023 8.32800007
-107.44000244 45.49666595 12.98666668
-8.43999958 52.20166779 9.24333286
-57.47000122 -50.11999893 11.03999996
-3.32999992 39.39500046 9.14500046
-113.91999817 -28.26000023 13.96500015
-116.00000000 -73.58000183 13.12333298
-115.52999878 -73.48000336 13.28999996
-113.44666290 2.01666665 6.16333342
-118.13999939 6.60333347 5.82499981
-118.43666840 -10.68666649 6.12333345
-75.84200287 -39.70000076 7.49399996
-28.93666649 3.40833330 12.60333347
-116.94400024 46.52199936 12.49800014
2.49250007 -63.68750000 12.30000019
-116.83285522 -36.11999893 7.91428566
-113.94166565 -16.08499908 8.09666634
-118.03250122 -8.28999996 6.09999990
-51.53374863 -34.08874893 8.90250015
17.87400055 -2.08999991 16.76799965
-21.40500069 -0.81000000 11.44499969
15.05571461 21.48714256 13.18857098
17.96599960 0.90399998 16.63999939
-51.86666489 6.11999989 8.65999985
-103.42428589 33.79999924 11.31285667
-17.23666573 -64.79000092 8.06999969
-105.03333282 -73.48666382 6.95666647
-115.64250183 -39.79249954 6.84000015
-31.42000008 -38.91799927 13.93400002
-60.94599915 -2.10400009 7.53599977
-67.13200378 -2.70400000 7.31799984
-103.44000244 -41.95999908 7.07000017
-102.33499908 -73.16000366 8.16499996
9.97714329 10.40142822 11.19285679
-26.94000053 -11.27999973 17.23749924
-34.65999985 -49.70000076 11.11999989
-57.93600082 31.39200020 7.40199995
-99.44750214 -73.58499908 8.64249992
-112.03600311 39.90399933 12.80200005
5.06833315 -20.69000053 10.68833351
-97.94999695 -73.54000092 8.71000004
-24.93400002 1.40400004 10.90200043
-71.01667023 -35.18999863 7.61666679
-96.93399811 -73.18199921 6.98600006
15.06000042 28.30999947 12.68166637
-100.94000244 48.49000168 13.41666698
-80.03250122 -30.09499931 7.41750002
13.08749962 51.22750092 13.94499969
-103.53500366 -43.88750076 7.01749992
19.35000038 -43.69333267 9.01666641
-107.93000031 27.88500023 11.82499981
12.05000019 -25.09799957 11.92199993
1.55799997 36.69599915 9.40200043
-17.52666664 11.90999985 8.36999989
-7.21999979 49.91500092 9.27499962
-48.82400131 14.89200020 8.37800026
-46.23333359 -18.58666611 10.38500023
-61.93000031 0.40000001 7.42999983
-39.24250031 46.31000137 9.00249958
-10.94999981 -38.48333359 8.51333332
-15.94250011 -52.68750000 8.18249989
-16.96333313 10.39666653 8.40666676
-49.94333267 32.39333344 7.07999992
-29.46500015 -0.10000000 14.14500046
-74.95249939 -17.12750053 9.43999958
-103.38999939 37.38000107 11.52999973
-71.04000092 4.00600004 7.05600023
5.51000023 33.86999893 9.77000046
-75.05249786 -53.70500183 7.19750023
-4.44750023 45.81000137 9.28250027
-62.93000031 -20.63500023 7.76000023
-82.83999634 -73.19499969 6.92000008
-109.92333221 -12.05666637 8.05000019
-29.00399971 -41.68999863 12.17800045
-5.44333315 -37.11333466 8.64666653
-63.93249893 43.90000153 9.39249992
-116.94000244 35.41666794 12.77333355
-66.73285675 -18.70142937 10.68857098
1.38250005 -48.19749832 8.64000034
-46.54750061 -21.69750023 8.29249954
-114.94499969 29.40500069 13.09500027
-26.46999931 -41.12500000 10.41499996
-70.34249878 -4.48250008 7.24249983
-21.52833366 -29.19166756 8.44666672
-96.44000244 51.80500031 13.72500038
-3.64000010 -55.59999847 8.46000004
-82.31999969 -43.13000107 7.94999981
-26.02000046 8.43750000 8.44250011
-108.94000244 9.41250038 6.01999998
-40.42166519 26.92000008 7.02166653
-6.53999996 -49.38499832 8.43750000
-67.94000244 -43.70000076 7.47333336
0.87500000 6.41666651 8.83166695
-49.63000107 36.91999817 6.96000004
-110.44249725 -32.68500137 11.60750008
-100.43000031 37.81333160 10.32333374
-88.94499969 -59.27500153 7.07000017
11.56000042 17.40749931 11.34249973
-87.32499695 36.79499817 6.30749989
-28.92000008 -44.70999908 8.34333324
-112.94333649 3.72666669 6.15000010
-22.93400002 -11.61200047 18.91600037
-48.41249847 -50.62500000 9.84000015
-64.44249725 3.51500010 7.28749990
-66.03666687 -73.17666626 7.00000000
-72.55000305 36.38600159 11.03600025
-80.04750061 -30.59749985 8.17000008
17.96750069 9.42000008 16.43499947
-105.54000092 -37.69400024 7.05999994
-84.93333435 3.40833330 9.02166653
-116.94249725 54.49250031 12.48750019
17.46199989 5.50600004 16.51199913
-62.31000137 -73.27999878 7.07000017
-54.72800064 32.88000107 6.92999983
-18.34333420 -3.60166669 12.88833332
-60.83666611 -73.20999908 7.09000015
-88.72200012 -49.20999908 7.23600006
-106.22000122 25.88999939 9.56000042
7.05999994 21.79800034 9.20400047
-63.43666840 31.84333420 8.31000042
14.53499985 19.21999931 13.05500031
18.55999947 34.31399918 15.30799961
2.03333330 54.37333298 15.24666691
-100.94000244 -1.89666665 6.53333330
-107.03666687 45.48333359 12.99666691
-62.02500153 4.40374994 7.33874989
-20.93199921 -48.08399963 10.30000019
-39.90666580 22.30666733 8.63000011
6.08799982 -60.70000076 12.43400002
-102.94999695 -11.19999981 6.53800011
6.03000021 34.36999893 10.06000042
-112.42800140 -14.99800014 8.13799953
-52.13399887 -73.18000031 7.21799994
-38.03799820 -7.10200024 8.19999981
-35.97999954 -11.47999954 9.44999981
0.55000001 9.39999962 8.78333378
-103.43499756 39.39250183 12.64500046
-58.95999908 -9.85000038 8.64999962
-43.93249893 -18.70750046 9.99750042
-76.44400024 42.10800171 10.96599960
16.05500031 29.28666687 13.42833328
-36.93666840 38.40499878 11.96833324
-77.95999908 -22.10000038 7.33249998
-44.63600159 49.21400070 6.22800016
-48.00000000 37.34999847 7.57000017
-99.12999725 -53.20000076 7.00666666
-64.53666687 -55.68000031 7.30333328
-73.41000366 -16.14999962 11.09000015
-49.93285751 -8.59571457 10.52571392
-77.65000153 -62.60666656 7.03000021
-31.52799988 13.60200024 7.89200020
-42.52999878 -73.38500214 7.43499994
-88.76000214 26.61000061 6.21000004
-66.00800323 -10.01200008 7.53399992
-56.45666504 -38.59333420 11.30666637
-114.73666382 -2.40333343 6.23666668
-13.03999996 51.81666565 9.22333336
13.55399990 18.71599960 12.29399967
12.47749996 46.32249832 12.86250019
1.45124996 -57.08874893 9.92249966
-113.93000031 -36.61999893 7.05333328
10.96199989 -13.11800003 14.62199974
-71.82333374 -10.59000015 9.44999981
-88.02333069 -64.77999878 7.01000023
-93.11499786 -39.58499908 7.36000013
-2.94000006 -31.79800034 8.73200035
-35.12400055 20.91399956 7.39599991
-79.44000244 20.92000008 7.07999992
-50.44499969 16.39999962 8.86499977
-115.91000366 -62.97499847 6.76000023
-33.43750000 -73.58750153 13.12500000
-61.46500015 -43.70500183 8.75000000
-32.23749924 -73.28749847 13.16499996
7.96500015 -43.09999847 8.80749989
-106.94000244 48.91999817 13.01500034
-84.02666473 -28.99333382 7.28666687
-95.54199982 -11.99600029 6.71199989
7.53999996 -34.88000107 11.06000042
1.55750000 -29.60499954 8.82750034
-28.92000008 -73.19999695 9.25500011
-2.22666669 12.80166626 8.68999958
-47.94499969 24.77000046 8.05500031
-0.44250000 40.29750061 9.28750038
10.03333378 -15.11999989 12.43999958
-26.42833328 -73.57833099 8.90166664
-75.33999634 -7.59999990 9.61600018
-70.31999969 -54.61666489 7.25333357
-13.47500038 40.88000107 8.61999989
-24.42749977 -73.18499756 8.53250027
19.17333412 -1.00999999 16.72333336
-23.42799950 -73.18000031 8.39200020
-50.95999908 -47.98500061 10.60999966
19.55200005 -28.18600082 12.62800026
-100.02999878 1.48000002 6.46999979
-53.84000015 -51.12666702 10.14333344
-89.95999908 -0.13000000 8.43999958
-20.42166710 -73.20666504 8.06999969
0.11000000 -44.11999893 8.65999985
-103.80000305 22.88500023 7.13500023
-18.83499908 -73.50333405 7.98999977
-97.51750183 -40.58499908 9.93249989
-47.06000137 44.89500046 7.48500013
-17.25333405 -73.20333099 8.00000000
-47.95999908 -18.13999939 10.26000023
-88.94999695 -6.05999994 8.43999958
-15.52799988 -73.20999908 8.03199959
-53.22999954 52.29750061 6.63250017
-45.83750153 -53.12749863 7.93249989
-16.04000092 -43.29750061 8.31000042
-115.45800018 -15.07999992 7.45400000
-8.85333347 -10.19333363 11.47000027
4.55000019 37.36999893 9.76000023
-79.32749939 -45.17250061 7.36250019
-33.13499832 -48.72000122 11.07499981
-45.90999985 -5.96500015 9.76000023
-52.97000122 -43.47999954 11.26000023
-90.24199677 -60.68799973 7.04799986
19.25000000 -28.65999985 12.47500038
-10.53333378 7.32999992 11.87666702
-8.52799988 -73.20200348 8.18400002
-8.03999996 -73.18499756 8.18999958
-27.53400040 -30.17799950 8.35000038
-116.44000244 -6.80499983 6.13000011
-61.15333176 -33.20000076 7.79666662
-5.94333315 -73.59999847 8.23333359
-79.44499969 54.41749954 14.52999973
-12.96666622 41.27666855 9.53999996
-34.44833374 -4.10333347 11.31166649
-4.05000019 -73.59500122 8.28499985
-82.54799652 39.31000137 6.67799997
-117.14499664 -39.18999863 6.82499981
-18.93666649 -1.59333336 10.91333294
-107.91999817 28.37000084 12.14500046
-78.33999634 -35.97999954 7.53999996
-113.23332977 13.10833359 5.92999983
-66.53800201 -62.69599915 7.18400002
-99.62333679 7.53666687 6.36999989
-105.94000244 -59.00999832 7.01333332
-108.44333649 -6.78000021 6.29666662
1.46249998 -73.58999634 8.42249966
-24.03000069 -45.08571243 8.81428528
-18.44249916 -44.41249847 8.25000000
-78.33399963 -39.80400085 7.50799990
-11.93999958 27.50250053 8.28750038
-108.44000244 50.60499954 12.92500019
18.13999939 -59.10499954 10.65999985
-19.53499985 -30.39749908 8.46749973
-44.90999985 -12.69499969 10.23999977
-36.94142914 -5.50000000 8.51714325
-41.53599930 -37.68199921 11.67399979
6.96333313 -73.11666870 8.55333328
-28.95428658 -51.40285873 8.14000034
-99.44000244 -41.48666763 7.13833332
-19.02750015 -52.61249924 8.14000034
-58.94499969 -21.97249985 7.73750019
-59.33499908 28.40666580 7.52666664
-98.23000336 -57.78666687 7.02833319
-83.13749695 -17.39249992 7.20499992
11.05500031 -73.20500183 8.64750004
-110.94166565 -13.09166622 8.34333324
14.05000019 45.88666534 12.91666698
-49.95666504 -42.09999847 11.13666630
-102.52500153 -44.68333435 7.03833342
-15.94400024 -30.20000076 8.53600025
-67.15000153 0.41999999 7.26999998
-103.02749634 -44.18750000 7.03249979
-52.92399979 -40.80400085 11.19600010
-34.43999863 -53.78749847 7.84499979
-58.49000168 -1.03999996 7.57999992
7.15000010 -17.62666702 10.05333328
-6.41833353 11.92000008 10.41499996
-70.52999878 -4.60571432 7.23857164
10.54800034 8.91199970 12.21700001
-18.02400017 19.30200005 8.21800041
-42.02600098 -55.09799957 7.65000010
-32.01666641 17.90666580 7.63000011
-92.13333130 -33.70000076 8.06999969
-63.43500137 39.58499908 10.38500023
-43.52249908 -11.59000015 10.22999954
-98.94599915 -41.68600082 7.17199993
9.07250023 -61.08000183 12.36250019
-87.52999878 -32.57749939 7.43125010
-71.93000031 -52.68000031 7.26999998
0.04666667 18.40999985 8.68333340
11.67500019 46.83000183 13.07499981
7.73999977 -20.09499931 9.85999966
-58.52000046 -22.11000061 7.75000000
-104.12599945 -45.19400024 6.98999977
-97.53500366 -39.59666824 7.18166685
18.08499908 -29.12000084 12.14999962
-20.84444427 -47.59666824 9.98333359
-23.02750015 28.90250015 7.44999981
-0.94250000 -35.79750061 8.72999954
-55.45249939 -28.60499954 7.98750019
11.05000019 25.10833359 9.86999989
-35.34000015 48.90499878 9.09500027
-77.91999817 -5.81500006 8.35000038
10.46500015 -24.59833336 10.99499989
-62.40999985 35.87666702 9.25666714
-11.53999996 -62.19250107 8.18500042
-118.52999878 39.90399933 12.50800037
-12.53285694 33.40428543 11.21285725
-2.53500009 -0.09666666 8.94833374
-17.82285690 -1.58714283 10.54714298
-78.03399658 -19.19799995 7.40999985
-107.94750214 -20.39249992 7.00750017
-103.44799805 -72.78399658 8.04599953
-104.92833710 26.81666756 10.93500042
-74.53199768 -52.19599915 7.25000000
-88.34999847 -53.70800018 10.05000019
-47.24333191 -25.70000076 8.06000042
-4.46000004 -17.00250053 8.85000038
-50.95999908 16.31333351 8.54333305
-28.87999916 -48.57500076 8.07499981
-87.54250336 14.90499973 6.44500017
-9.96249962 24.99749947 8.38749981
-98.44000244 -72.90499878 8.67249966
-114.03399658 -1.51800001 6.23199987
-49.52199936 -39.29800034 11.51399994
-56.04000092 -57.59600067 7.38000011
-46.41166687 12.00000000 7.92000008
-6.44333315 -62.68000031 8.30333328
-85.02166748 12.52000046 6.69833326
10.15999985 -47.09999847 9.22375011
-54.45500183 -8.81499958 12.64999962
-96.51667023 -12.10000038 6.69333315
-116.03250122 -60.79249954 6.73999977
-8.32600021 -5.09399986 11.81599998
-5.03599977 -33.60800171 8.68000031
-92.05500031 -72.70500183 6.96999979
-10.53333378 -31.70000076 8.60833359
11.05500031 8.43000031 12.83500004
-54.45666504 45.11999893 6.41333342
-76.98000336 -8.06000042 9.69999981
-26.45249939 -12.20250034 17.14249992
-31.32999992 -49.59000015 12.93249989
15.55249977 47.30749893 13.29249954
-119.42500305 32.40000153 13.09000015
-0.94333333 36.50000000 9.14999962
-86.34999847 23.85000038 6.32000017
-87.91999817 -47.11999893 7.67999983
5.48500013 -51.10250092 9.36250019
11.53999996 10.01333332 12.55000019
-84.80000305 31.22999954 6.19000006
-84.91999817 -72.90000153 6.94000006
-93.92666626 43.38000107 12.03999996
-40.24000168 -22.13666725 8.55666637
-112.44999695 45.68999863 12.71500015
-33.02999878 -27.69666672 8.30833340
-82.31999969 -72.60749817 6.91750002
-85.43800354 45.88600159 11.03199959
-81.32666779 -72.78333282 6.90000010
10.55888844 21.50777817 9.72444439
-80.43750000 -72.80249786 6.90000010
-47.33000183 30.43499947 7.84999990
-26.42857170 37.38999939 9.53142834
-70.43499756 48.38249969 10.74499989
-83.44000244 -17.89500046 7.18499994
4.84666681 -60.09000015 12.47000027
-55.02999878 -35.06750107 9.04249954
-19.33833313 -3.08166671 12.62833309
-2.51999998 17.69000053 8.60999966
-17.03333282 10.01333332 8.42500019
-65.53333282 -60.10666656 7.23000002
16.55999947 21.04000092 14.44999981
-5.94250011 46.81999969 9.24499989
-47.22874832 -26.21125031 8.05749989
-72.94666290 -72.69000244 6.87333345
-118.87999725 -58.99000168 6.78000021
-38.53499985 -6.09749985 8.11750031
-114.94499969 -47.20000076 6.77500010
-61.81999969 14.35000038 8.86999989
-77.14499664 -61.19499969 7.05499983
-70.03600311 -72.70800018 6.93400002
-31.30500031 33.37500000 8.14999962
-98.44333649 -19.18666649 7.18499994
-81.33249664 48.88750076 12.13749981
-53.93999863 -13.69166660 11.87833309
-67.61833191 -60.27833176 7.19999981
-86.92800140 -51.98600006 7.28599977
1.95666671 7.40000010 8.85999966
-32.20999908 -61.61999893 12.10999966
-99.43714142 -60.29571533 7.42000008
-65.34666443 -72.61000061 7.03333330
19.55999947 41.50500107 15.73750019
-93.72399902 14.41199970 6.33400011
-63.54000092 -72.88800049 7.05600023
-56.94285583 14.39571476 9.20428562
-107.42500305 -34.16999817 8.27999973
-87.44999695 11.50000000 6.65999985
-81.03749847 -28.70000076 7.34499979
-112.73000336 8.39999962 6.07000017
-111.45500183 15.02999973 5.96999979
-101.02799988 -49.18799973 7.00000000
-44.93500137 48.49499893 6.28499985
15.56000042 40.99800110 13.22999954
-117.97000122 -17.20000076 6.96999979
-116.01000214 39.90000153 12.64999962
-67.51999664 -57.31000137 7.24749994
11.36666679 -9.07666683 17.24666595
-26.04000092 27.90749931 7.47749996
12.96666622 -41.61333466 8.94999981
10.04500008 33.38249969 10.68750000
15.58666706 -16.11666679 12.54666710
-114.24400330 8.89200020 6.07800007
-111.33750153 -3.69749999 6.30999994
-78.04250336 -23.09499931 7.34250021
-74.94249725 -30.20750046 8.22749996
-117.75000000 -0.69250000 6.09250021
-64.91249847 -18.18250084 9.34000015
-51.61600113 -72.90799713 7.23999977
19.04666710 0.40666667 16.68333244
-20.92499924 -11.63000011 18.64500046
-85.41999817 -57.70500183 7.07499981
-101.03250122 -1.29499996 6.51749992
-81.94000244 18.90999985 6.25000000
-48.54000092 -72.69999695 7.29750013
-48.02999878 -72.62000275 7.30999994
-62.53250122 -64.70749664 7.20749998
-36.01250076 -48.58000183 10.70499992
-65.63625336 27.40625000 6.67124987
-60.94499969 -6.20666647 7.67999983
-118.53874969 -12.60499954 6.10624981
6.01000023 42.83499908 11.69499969
-24.48999977 -46.59000015 9.38000011
-63.94333267 -60.70000076 7.25666666
-116.74800110 -50.60200119 6.75799990
11.09000015 52.02000046 15.05500031
7.06199980 19.38999939 9.02000046
-42.13999939 -72.69000244 7.46000004
-117.83999634 -14.05000019 7.90000010
-41.13499832 -72.88749695 7.48000002
-13.85999966 -61.97999954 8.15999985
-40.03400040 -72.69400024 7.54799986
-39.45000076 0.00750000 7.83249998
-109.44499969 37.91999817 12.96000004
-13.62500000 -53.38999939 8.22000027
-112.70500183 -18.12500000 7.64499998
-68.02200317 40.90999985 12.80399990
-1.02499998 19.29500008 8.64999962
-52.94200134 -63.61399841 8.21399975
-109.53250122 -46.10749817 6.86749983
7.55499983 7.90500021 10.11666679
-35.01666641 3.41000009 7.91833353
-9.23999977 6.37500000 11.03999996
-17.43499947 -1.60333335 10.50666714
10.55166626 7.91333342 12.63500023
-87.84333038 -64.79333496 7.01000023
1.51999998 -58.09000015 10.34000015
-85.75000000 4.40142870 8.12428570
18.96500015 48.40999985 15.36499977
-31.42600060 -72.69599915 9.61400032
-71.12666321 -33.22000122 7.66666651
-109.03333282 45.80333328 12.92666626
6.01000023 -9.18000031 12.96000004
-18.42857170 37.79999924 7.30285692
-23.93124962 34.79124832 7.27124977
-101.12666321 -19.40999985 7.11333323
-41.86999893 45.50000000 9.18999958
-27.43000031 -72.69333649 9.02999973
-43.92666626 -46.09666824 11.17166710
-93.04428864 -38.68714142 7.27571440
-25.91666603 -72.69499969 8.77999973
-25.41666603 -72.68666840 8.69333363
-116.94000244 44.89599991 12.50399971
6.55000019 -54.08200073 11.41199970
-38.91600037 17.19000053 8.74800014
-67.72750092 -26.60000038 7.65999985
-76.93333435 48.38666534 11.62666702
-1.73199999 -39.20000076 8.68000031
-23.03333282 5.90000010 8.65999985
2.54833341 52.20833206 14.13166714
-32.53333282 -57.11333466 7.87666655
-57.93999863 -42.59111023 11.22666645
-102.93142700 -23.10000038 7.53000021
-56.94400024 -9.47999954 10.38199997
-18.92666626 -72.61000061 8.00000000
-104.14199829 -56.19400024 6.92999983
-83.54499817 -27.30500031 7.28000021
-5.02600002 -29.79599953 8.71599960
-105.24500275 -45.11000061 6.98500013
-37.52999878 -58.18500137 7.71999979
-64.54571533 -33.30428696 7.75000000
-9.64333344 27.00333405 8.37333298
-47.43999863 42.11000061 8.58666706
16.55599976 45.99599838 13.80000019
-25.50499916 -13.65999985 16.77000046
-49.90666580 -11.68666649 10.63000011
-105.02749634 48.88999939 13.12250042
-51.43624878 23.41124916 7.29874992
16.05200005 -6.60400009 17.04000092
-0.44000000 42.28666687 9.37666702
-69.35500336 40.37500000 12.81000042
3.05333328 -53.59000015 9.16666698
-3.93499994 9.90250015 9.04500008
-33.43999863 -53.51666641 7.91666651
-56.94499969 -41.49000168 11.28750038
-100.91500092 19.21500015 6.25000000
7.55666685 30.79999924 10.22833347
-78.85399628 47.88399887 11.03800011
-113.03333282 -59.29666519 6.78999996
-117.08000183 -5.67999983 6.15999985
-59.54000092 -61.70000076 7.28999996
5.51000023 42.24000168 10.96000004
-116.03500366 -49.80500031 6.76999998
-3.94749999 -72.89499664 8.27499962
-118.44000244 -14.18000031 7.59999990
-73.94000244 42.00249863 12.27999973
-86.44799805 10.89799976 6.68400002
-79.86000061 45.84000015 9.65999985
-1.44000006 -72.88400269 8.33800030
-97.94750214 9.92000008 6.34499979
9.04666710 -47.57666779 9.26000023
-2.44000006 -41.61399841 8.63000011
-25.63166618 -4.59666681 17.12000084
-107.92333221 -11.59666634 6.71333313
12.45750046 -8.09500027 17.12750053
14.05500031 25.39749908 11.93249989
-14.22999954 26.33499908 8.15999985
3.01999998 50.86000061 13.61999989
-73.95666504 -27.60333252 7.51666689
-25.93250084 37.88499832 9.64999962
18.02000046 18.48999977 15.76000023
-8.44666672 21.19000053 8.55000019
-59.53857040 28.29999924 7.59142876
-26.03666687 -23.69499969 8.60166645
-23.24250031 0.39750001 11.71374989
-98.53500366 14.89999962 6.19000006
-108.92500305 -25.56999969 10.26000023
-4.90500021 11.92000008 9.25000000
-63.02999878 -4.27666664 7.44999981
-89.84500122 -40.93000031 9.49499989
-47.43399811 -46.88800049 11.01399994
-119.64399719 -14.49600029 7.33599997
-36.93999863 -1.59124994 8.17249966
-110.44000244 -37.00333405 7.05666685
-55.13249969 11.89999962 10.10249996
-115.94666290 -16.46999931 7.75666666
-64.92857361 -42.68857193 7.61714268
-90.83666992 47.79999924 13.90333366
-27.43000031 30.30142784 7.11142874
-80.91000366 30.81999969 6.36000013
13.94999981 -14.14999962 14.35999966
15.87714291 -31.60142899 12.80142879
-16.42799950 3.92600012 8.70800018
-89.42666626 42.38000107 9.58333302
-40.92714310 -50.20000076 8.31428528
16.97333336 -72.89666748 8.78666687
-27.72999954 14.99666691 7.98666668
-63.02999878 -30.89333344 7.82499981
-39.72000122 -25.95999908 8.27000046
18.97249985 -72.70249939 8.81750011
19.46750069 -72.68750000 8.83250046
-21.92833328 -40.18333435 8.40499973
-91.44499969 4.49499989 6.67999983
-87.87999725 22.62999916 6.19999981
-104.43599701 29.79199982 10.81200027
-77.95999908 -17.62000084 7.96000004
4.05999994 18.10000038 8.81666660
10.05428600 -11.70714283 15.22428608
-9.52999973 -63.79499817 8.22500038
-52.06999969 -44.11999893 11.26000023
-37.93166733 -65.28333282 9.02833366
-111.01750183 -47.40999985 6.82999992
-114.98999786 -72.44999695 13.85000038
-11.43500042 -9.56000042 12.76000023
-57.94250107 24.41500092 7.88999987
-85.52833557 13.40499973 6.64333344
-13.34249973 43.40499878 9.28250027
-79.91000366 51.86000061 14.26000023
-88.03250122 -17.88999939 7.09000015
-65.00000000 -26.80999947 8.36999989
-48.43999863 -47.49833298 10.49833298
5.03999996 -6.38000011 12.26000023
-83.44999695 -43.77500153 7.42000008
-58.02500153 -34.10250092 7.94000006
-22.32999992 -47.05500031 9.93000031
-46.99000168 40.99000168 8.86999989
-83.92400360 21.71599960 6.20599985
-105.93000031 30.31250000 11.78499985
7.53999996 -11.13000011 13.64999962
-50.43999863 -17.15999985 10.97000027
-96.23000336 -43.18600082 7.20800018
-15.33666706 -0.09000000 9.27000046
13.02000046 13.00000000 12.44999981
-27.94249916 46.93500137 12.92249966
19.47999954 21.40749931 15.98999977
-98.96499634 12.00000000 6.26000023
-103.32666779 -72.12333679 8.30000019
-18.03199959 -56.68199921 8.10599995
16.05999947 25.59874916 13.39875031
15.06000042 -46.09000015 8.94999981
-14.43599987 28.82600021 8.67399979
-96.53600311 10.40200043 6.36800003
-102.93599701 19.80999947 6.40399981
-18.52599907 4.41200018 8.74400043
-107.94249725 8.40750027 6.10500002
5.55428553 31.29999924 9.59571457
-57.04000092 36.80199814 6.40600014
-11.12749958 -58.69499969 8.22999954
2.77250004 -63.20500183 12.41250038
-34.72000122 21.89749908 7.34499979
-93.33799744 -31.58799934 7.09999990
-29.01600075 -16.18000031 13.47599983
-29.44000053 5.40166664 11.42833328
-107.94499969 10.91749954 5.97249985
-111.44666290 -57.00999832 6.81666660
-115.72333527 -6.67999983 6.17999983
-116.94400024 43.80799866 12.50599957
-20.03249931 5.92000008 8.67249966
-92.36000061 -72.55000305 6.96999979
-32.41666794 35.36999893 9.43999958
-49.43285751 -62.19571304 9.01857185
12.56124973 -1.09749997 16.60250092
-61.94499969 9.80749989 8.97749996
-59.97000122 25.94000053 7.46000004
-89.69000244 43.38999939 10.44999981
-88.92666626 -72.59166718 6.95499992
-88.33499908 -72.27999878 6.94999981
-109.94999695 -0.18750000 6.28249979
-106.02999878 -41.00333405 7.01999998
-78.94999695 -63.70000076 7.01499987
-43.94599915 30.40600014 7.05200005
-73.94249725 38.70750046 12.43999958
18.67000008 -19.12000084 10.14999962
-17.40999985 41.36000061 8.23999977
17.56333351 -30.06333351 12.05333328
-83.84999847 -72.30200195 6.92999983
-45.91999817 -19.21750069 10.23999977
-118.44000244 -3.09999990 6.11000013
-109.46499634 -34.61999893 8.35000038
-113.95249939 -6.70499992 6.20499992
-33.04999924 19.92333412 7.50666666
-42.94666672 52.80666733 6.25333357
-19.54750061 21.91500092 8.13000011
-64.68000031 46.43999863 8.65999985
-90.33999634 -64.69166565 7.00666666
-79.44999695 7.78999996 6.84999990
-110.86000061 5.39499998 6.15999985
-85.44999695 54.40333176 14.16333294
7.98250008 -49.06250000 9.34749985
-2.94499993 -32.59500122 8.72999954
-107.44499969 50.57500076 12.99499989
8.55599976 14.61999989 8.96599960
17.55999947 40.90999985 14.71249962
5.45666647 -26.11499977 9.12833309
-87.93000031 -33.17499924 8.07750034
-101.04000092 -28.30999947 7.98000002
-73.94000244 -21.56999969 7.43666649
15.19999981 -18.12999916 10.93999958
0.58499998 -17.20499992 9.81999969
-117.11799622 -1.59000003 6.13800001
-38.43000031 4.59333324 10.30833340
-70.53500366 -72.19249725 6.93499994
-0.23500000 22.29500008 8.71500015
-68.55333710 -16.20000076 10.78333378
-113.59999847 -23.10499954 7.88500023
-34.95999908 -14.70333290 9.64666653
-61.94499969 -57.79000092 7.30999994
-58.44400024 10.89000034 9.21000004
-119.51667023 -4.69000006 6.07333326
-113.83000183 11.42000008 6.00000000
-9.03428555 12.00857162 11.63428593
-55.91999817 -65.07250214 8.04749966
-52.51499939 -18.66500092 9.47999954
-108.93000031 -9.59200001 6.43400002
-58.34000015 47.89500046 6.50000000
-63.62500000 -72.23000336 7.07000017
-31.00499916 -54.59500122 13.10499954
-62.36666489 30.31333351 6.89666653
-75.33142853 51.38857269 14.10999966
-4.54400015 18.79999924 8.57600021
-33.02333450 15.19666672 7.75333357
-0.24500000 21.88999939 8.69999981
-76.90000153 -0.20999999 7.74499989
7.98124981 -24.09124947 9.92249966
-37.93750000 -39.69499969 13.07999992
-35.03499985 52.40999985 8.73499966
-41.94250107 -40.08499908 11.66250038
-57.54000092 -72.52999878 7.15999985
-96.43800354 23.40399933 6.21199989
-29.93333244 -53.89833450 8.38833332
-55.93999863 -72.18499756 7.17250013
-41.45999908 33.36000061 8.56000042
-92.54000092 48.89833450 13.96666622
-40.83428574 -38.08714294 15.51571465
-52.82500076 2.70000005 8.37749958
1.46000004 8.59666634 8.81666660
-40.47000122 27.78499985 6.96000004
-77.48000336 40.36999893 10.14000034
-65.94285583 -7.09714270 7.37571430
-51.83499908 -72.19499969 7.25500011
-101.43399811 -34.08000183 7.86999989
-67.40750122 -10.59000015 7.64249992
-23.70999908 -62.79999924 7.96999979
16.26000023 -46.09000015 8.96500015
-49.03333282 -72.19999695 7.30000019
-48.55333328 -72.19333649 7.30999994
-103.02799988 -9.79800034 6.54199982
-59.43999863 -29.59250069 7.90999985
-79.15333557 -55.61000061 7.12666655
0.45249999 47.38999939 9.84000015
-99.03333282 -56.27666855 7.01000023
-41.95000076 38.89166641 11.42333317
-63.63199997 23.50600052 7.64400005
-46.43000031 53.81666565 6.78166676
-104.54000092 -38.49800110 7.08400011
-97.00000000 -28.21999931 6.96999979
-18.24399948 -37.19200134 8.39000034
-71.98999786 -64.26999664 7.07000017
-19.02499962 -33.69749832 8.43750000
-92.52999878 54.41666794 13.89333344
-69.52333069 -64.61000061 7.10666656
6.45666647 -57.00333405 12.29666710
-99.33249664 19.88750076 6.25000000
-88.02999878 34.59999847 6.11000013
-32.64250183 -59.99000168 7.83249998
-87.51000214 -3.67000008 9.65999985
-62.88000107 16.85000038 8.18000031
17.04666710 16.48999977 15.24666691
-118.52999878 -18.17666626 6.54333353
-112.83999634 18.87333298 6.75666666
15.55166626 16.90166664 14.03333378
-99.41500092 35.29000092 8.33500004
-88.53749847 9.70250034 6.64750004
-34.62625122 -72.60250092 13.09624958
-87.03500366 -27.69000053 9.41499996
-23.52249908 -24.60750008 8.51000023
-52.84833145 19.60833359 8.69666672
-111.45571136 -12.59714317 7.81285715
-38.34600067 -46.61199951 8.97200012
-59.93000031 41.50500107 7.42500019
0.55750000 51.30625153 12.22000027
-101.48999786 -0.01000000 6.46999979
-0.04400000 4.90600014 8.86200047
9.53666687 -3.98000002 15.63666630
-14.02499962 23.89749908 8.25249958
-119.93499756 17.80999947 5.82749987
-107.93499756 9.48999977 6.05499983
-4.83599997 36.88399887 9.10400009
-68.94249725 -46.31499863 7.40999985
-23.43444443 42.79888916 11.21555519
16.56428528 -59.10142899 11.54285717
-87.13333130 -56.68999863 7.09999990
-65.92333221 15.91333294 8.21666622
-103.43666840 -57.07333374 6.94999981
-24.43799973 -72.19000244 8.57800007
-97.03500366 -45.68750000 10.28750038
-82.52666473 -29.08333397 7.30999994
-74.94000244 43.43500137 10.93999958
-97.43000031 33.90166855 6.88333321
-30.94750023 50.71749878 9.20750046
-21.42250061 -72.38749695 8.18999958
-84.43750000 32.99000168 6.19000006
-11.52999973 -58.29600143 8.21800041
-72.02400208 54.81200027 14.81000042
-50.73333359 -19.11666679 9.74333286
-37.43999863 5.92000008 7.72333336
-98.51750183 6.90250015 6.40749979
2.02999997 -9.81000042 9.64999962
-10.44999981 -41.75999832 8.46000004
-16.54999924 -72.19750214 8.02000046
-74.53500366 42.90874863 11.41874981
-13.05249977 48.20000076 9.25000000
-82.48000336 -14.60999966 8.64999962
-52.43999863 1.40250003 8.42249966
-4.44000006 52.60499954 9.46500015
-14.19999981 -15.85000038 13.52000046
-17.03800011 -4.09600019 13.30599976
-12.52499962 -72.60500336 8.09749985
-17.94000053 -39.66999817 8.35999966
-34.81000137 -48.65000153 11.35999966
-118.43833160 -59.60166550 6.75666666
-36.43999863 48.39833450 8.71500015
-95.66999817 -50.20999908 10.15999985
-9.43999958 -72.30500031 8.15999985
-68.54833221 -58.59999847 7.21000004
-27.53857231 -64.10857391 7.90285730
-118.03199768 12.90400028 5.79400015
6.46199989 17.80400085 8.89000034
1.99666667 -55.59999847 9.59000015
-112.94666290 38.20666504 12.81000042
18.05166626 32.81333160 14.92833328
-45.43999863 23.88800049 9.81200027
-22.50000000 52.59500122 8.96500015
8.96666622 -17.10666656 10.59833336
-102.89666748 36.79000092 11.04666710
-78.47333527 39.20999908 9.93333340
-29.94000053 -3.20166659 14.98499966
-97.12166595 -35.60833359 7.21666670
-55.93750000 51.70750046 6.84999990
-83.20999908 53.40000153 14.35999966
-73.52333069 4.20666647 7.01000023
-116.82499695 24.34499931 10.85999966
-112.92333221 13.60000038 5.92000008
-65.84200287 15.61400032 8.24400043
-47.54333496 -28.70000076 8.08333302
-94.26999664 -51.15000153 10.15999985
-5.86999989 -3.52999997 9.15999985
-69.05500031 -56.19250107 7.23750019
3.05749989 -72.11750031 8.54500008
-0.05000000 -0.60200000 9.04599953
-9.42142868 0.51142859 12.41714287
-36.41600037 -34.09000015 11.40999985
-89.01856995 -20.20000076 7.03714275
5.45666647 -72.21333313 8.53666687
-63.63999939 -28.62999916 8.55000019
-12.44285679 8.50428581 10.50857162
-63.02750015 -60.59000015 7.27750015
16.95999908 6.91249990 16.51499939
-53.95999908 -59.78499985 8.56000042
8.47249985 -72.20249939 8.61499977
-23.89500046 -39.06000137 9.05500031
-90.06333160 -42.16999817 7.32000017
-56.45999908 43.90999985 6.53499985
-21.40250015 42.70500183 10.73499966
-40.45000076 0.19000000 7.76999998
-50.92800140 34.90399933 6.93200016
12.05000019 -72.38400269 8.67599964
3.35285711 15.10571384 8.81428528
-78.91166687 -4.69000006 9.23499966
13.44666672 -72.18333435 8.71000004
14.05666637 -72.18000031 8.72333336
-22.23999977 -57.65999985 12.21000004
-71.02400208 -24.09399986 7.53000021
15.50000000 -72.12000275 8.77000046
-5.52799988 -29.80200005 8.70600033
-16.53666687 -57.70000076 8.14999962
-50.91999817 10.94250011 8.62500000
-38.95333481 -13.19666672 8.30000019
-61.05199814 30.41399956 6.73400021
-118.53166962 27.20166588 13.22999954
-79.47000122 -15.71000004 8.05000019
-53.43999863 -38.19800186 11.07400036
-98.43428802 -14.20714283 7.50142860
-38.63750076 -8.08749962 8.23499966
-118.83000183 -71.98999786 12.46000004
-70.55999756 -65.47000122 7.07000017
-10.51249981 17.80249977 8.44750023
-44.53666687 -36.60333252 11.39999962
-116.72000122 -71.97000122 13.07999992
-94.43333435 28.11166573 6.10500002
-95.14499664 -28.77666664 7.02166653
-53.53833389 -27.09333420 7.87333345
-47.42666626 7.19333315 7.92333317
-82.43666840 -5.27666664 10.66666698
6.04500008 -16.11000061 10.54249954
-19.43000031 -21.18833351 9.89833355
-43.06000137 22.87000084 8.93999958
-91.44000244 9.93000031 6.55666685
-119.03250122 -54.90999985 6.69999981
-41.94749832 -63.20000076 7.58249998
-61.04499817 -53.11000061 7.65000010
